2.2442;2.3418;-2.9573
2.1866;2.2682;-2.9600
2.9013;1.9229;-2.9065
2.7189;1.8862;-2.9037
2.6172;1.8980;-2.8906
2.4159;2.0770;-2.9248
2.2822;2.1204;-2.9297
2.1592;2.1605;-2.9359
2.1043;2.1821;-2.9362
2.0451;2.1961;-2.9386
1.9949;2.2180;-2.9420
1.9393;2.2284;-2.9419
3.1996;1.9469;-2.9272
2.4000;2.0724;-2.9326
2.3275;2.0868;-2.9316
2.2689;2.1110;-2.9328
3.2372;1.9209;-2.9179
3.1095;1.9415;-2.9117
3.0017;1.8729;-2.9135
2.8183;1.9295;-2.9153
2.7378;1.9579;-2.9127
2.5042;2.0260;-2.9168
2.4400;2.0517;-2.9168
2.3687;2.0674;-2.9164
2.2464;2.1071;-2.9197
2.2022;2.0514;-2.9235
2.1946;2.1327;-2.9235
2.1410;2.1556;-2.9344
2.0780;2.2595;-2.9437
3.4841;2.0330;-2.9441
3.1212;1.8769;-2.9081
2.7689;1.9033;-2.9006
3.0913;2.0036;-2.9329
2.9998;2.0335;-2.9258
2.8229;1.9906;-2.9277
2.7525;2.0228;-2.9273
2.9067;2.0196;-2.9218
3.0467;2.1005;-2.9539
2.9623;2.1299;-2.9495
2.8693;2.1480;-2.9456
3.0939;2.1052;-2.9530
2.2200;2.2390;-2.9426
2.0444;2.3505;-2.9676
2.2412;2.1502;-2.9364
2.2021;2.2485;-2.9442
2.1350;2.2473;-2.9517
2.0913;2.3472;-2.9575
2.1448;2.2885;-2.9551
2.2749;2.1912;-2.9382
2.3329;2.1191;-2.9363
2.3032;2.2244;-2.9398
2.1702;2.2436;-2.9544
2.2990;2.1864;-2.9354
2.2298;2.1924;-2.9449
2.1673;2.2047;-2.9486
2.5145;2.1914;-2.9377
2.2916;2.2033;-2.9393
2.2198;2.2007;-2.9416
2.1568;2.2124;-2.9443
2.0908;2.2114;-2.9478
2.4531;2.0724;-2.9292
2.1133;2.3078;-2.9497
2.4513;2.0433;-2.9277
2.2156;2.1752;-2.9444
2.5206;1.9949;-2.9126
2.4311;2.1286;-2.9331
2.5726;2.0540;-2.9231
2.1130;2.2094;-2.9461
2.4576;2.1337;-2.9356
2.2798;2.2651;-2.9495
2.1356;2.2661;-2.9467
2.5688;2.1700;-2.9358
2.4974;2.0477;-2.9261
2.4244;2.0655;-2.9301
2.1823;2.2052;-2.9402
2.2130;2.2616;-2.9418
2.2753;2.2010;-2.9444
2.2029;2.2078;-2.9428
2.5080;2.1383;-2.9277
2.2648;2.1581;-2.9414
2.1163;2.1536;-2.9360
2.2571;2.1432;-2.9362
2.1842;2.1470;-2.9329
2.1090;2.1419;-2.9333
2.2505;2.1659;-2.9381
2.1745;2.1660;-2.9331
4.9785;1.7019;-2.9241
4.7532;1.7230;-2.9209
2.4403;2.0913;-2.9327
2.2447;2.2357;-2.9508
2.0806;2.2190;-2.9457
2.1984;2.1826;-2.9472
2.3080;2.1172;-2.9225
2.0340;2.2699;-2.9477
2.2609;2.2950;-2.9525
2.1637;2.2743;-2.9524
2.1178;2.2221;-2.9485
2.1035;2.2806;-2.9589
2.2398;2.2166;-2.9442
1.9316;2.3515;-2.9552
4.5522;1.6811;-2.9186
2.0882;2.3255;-2.9499
1.9040;2.3088;-2.9554
1.9895;2.2996;-2.9487
1.8949;2.2804;-2.9507
2.3784;2.0808;-2.9202
2.0687;2.2790;-2.9505
1.8825;2.2568;-2.9470
4.5164;1.6850;-2.9200
2.5873;2.0417;-2.9189
2.4893;2.0701;-2.9327
2.1535;2.2392;-2.9432
4.4946;1.6015;-2.9002
4.7834;1.5714;-2.9018
2.1042;2.2873;-2.9466
2.0071;2.2856;-2.9464
4.7874;1.5271;-2.8972
2.1087;2.2531;-2.9518
2.0896;2.2297;-2.9490
1.9927;2.2277;-2.9485
1.9653;2.2449;-2.9405
1.8611;2.2163;-2.9407
2.3765;2.0746;-2.9297
1.9362;2.2681;-2.9520
4.6946;1.6662;-2.9104
4.4516;1.6710;-2.9070
4.8861;1.6039;-2.9075
2.0506;2.3574;-2.9569
1.9466;2.3568;-2.9602
2.5249;2.1432;-2.9491
2.2565;2.3242;-2.9584
2.1441;2.3255;-2.9606
1.8185;2.2981;-2.9528
4.3976;1.5979;-2.8867
4.4440;1.6064;-2.8911
2.4176;2.1059;-2.9287
2.2888;2.1041;-2.9339
4.3522;1.5884;-2.8943
2.4686;2.0384;-2.9166
2.1695;2.2116;-2.9327
2.4651;2.0897;-2.9292
2.0305;2.2528;-2.9540
4.8938;1.5065;-2.8993
2.4501;2.1378;-2.9276
2.2915;2.1526;-2.9245
1.7387;2.2939;-2.9511
4.8084;1.6646;-2.9217
5.1125;1.5435;-2.9081
2.5081;2.1440;-2.9449
2.1984;2.3629;-2.9601
1.7663;2.2633;-2.9491
4.4344;1.6193;-2.8933
4.3753;1.5654;-2.8878
2.5442;2.2585;-2.9539
1.9991;2.2795;-2.9398
1.8612;2.2445;-2.9424
2.5730;2.1141;-2.9255
2.0710;2.2843;-2.9603
2.4204;2.1549;-2.9419
2.4009;2.1188;-2.9325
1.5716;2.4331;-2.9614
4.5796;1.4572;-2.8812
1.6223;2.4173;-2.9588
4.7688;1.4960;-2.8802
4.9684;1.4351;-2.8736
4.6331;1.5498;-2.8834
1.8313;2.3235;-2.9462
4.8360;1.4564;-2.8845
2.5518;2.2137;-2.9490
2.5369;2.1418;-2.9455
4.6314;1.5113;-2.8825
2.0560;2.2671;-2.9489
1.6481;2.3375;-2.9462
2.1582;2.2631;-2.9500
1.6402;2.2297;-2.9320
1.6144;2.3678;-2.9485
4.4054;1.5956;-2.8953
1.8869;2.3591;-2.9566
1.4090;2.2714;-2.9370
2.2177;2.1000;-2.9261
4.1025;1.7260;-2.9128
1.8435;2.4249;-2.9617
1.4473;2.3549;-2.9547
3.7029;1.7497;-2.9072
4.9904;1.5037;-2.8930
1.9101;2.1952;-2.9264
4.6347;1.6944;-2.9101
1.4080;2.4798;-2.9603
3.9107;1.7453;-2.9055
1.3036;2.4089;-2.9489
3.8314;1.7981;-2.9173
1.3977;2.4055;-2.9518
1.5149;2.3984;-2.9667
1.1552;2.4335;-2.9441
1.0974;2.4020;-2.9548
3.4731;2.0804;-2.9453
0.8110;2.4941;-2.9619
-0.1533;2.7195;-2.9719
0.0912;2.5858;-2.9564
0.3403;2.6399;-2.9601
2.6749;1.9694;-2.9201
2.4515;2.0891;-2.9348
2.5978;2.0426;-2.9174
2.6612;1.9751;-2.9210
2.4404;2.0697;-2.9328
2.6535;2.0295;-2.9265
2.4349;2.1082;-2.9293
2.4299;2.0858;-2.9191
2.1703;2.1980;-2.9304
2.7422;2.0291;-2.9282
2.5327;2.1138;-2.9364
2.1873;1.9599;-2.9066
2.5295;2.1381;-2.9357
2.5837;2.1483;-2.9378
2.4650;2.2115;-2.9434
2.3101;2.1131;-2.9343
2.4029;2.0308;-2.9233
2.1556;2.2986;-2.9643
2.5292;2.0703;-2.9285
2.0338;2.3733;-2.9609
2.6514;2.1985;-2.9477
2.4406;2.1192;-2.9232
1.8999;2.4289;-2.9638
2.0523;2.3237;-2.9551
2.6609;2.1038;-2.9449
2.5604;2.1593;-2.9451
2.4612;2.1922;-2.9460
1.5782;2.4418;-2.9667
1.7819;2.3906;-2.9665
2.6762;2.1208;-2.9477
2.5809;2.1767;-2.9495
2.3834;2.0682;-2.9218
1.9798;2.2979;-2.9580
1.6763;2.4187;-2.9574
2.4652;2.1388;-2.9409
2.2412;2.2550;-2.9550
2.6280;2.1835;-2.9583
1.7995;2.4095;-2.9674
2.6026;2.0974;-2.9402
1.8001;2.3180;-2.9543
2.5171;2.2097;-2.9489
2.4197;2.0948;-2.9293
1.9814;2.2230;-2.9393
2.4113;2.0659;-2.9281
2.0538;2.3817;-2.9709
2.2564;2.2045;-2.9481
2.0306;2.3046;-2.9535
1.9110;2.3444;-2.9540
2.2431;2.2077;-2.9517
1.7513;2.4211;-2.9579
1.9290;2.3096;-2.9624
1.6550;2.4159;-2.9630
2.3842;2.0519;-2.9283
2.1935;2.1387;-2.9386
2.0737;2.3350;-2.9677
1.9507;2.3957;-2.9679
2.0774;2.3234;-2.9561
1.5231;2.4347;-2.9666
1.3676;2.4833;-2.9665
1.5872;2.4228;-2.9629
2.4124;2.0553;-2.9156
2.2307;2.3091;-2.9558
1.8082;2.4378;-2.9756
2.1966;2.3228;-2.9540
1.8745;2.3069;-2.9584
1.7466;2.3558;-2.9592
2.5048;2.0382;-2.9262
1.9840;2.3140;-2.9515
1.8608;2.3614;-2.9539
1.7508;2.3747;-2.9500
2.2901;2.1865;-2.9499
2.6493;2.1300;-2.9339
2.6850;2.1620;-2.9491
2.6162;2.1576;-2.9406
2.1513;2.3182;-2.9523
2.0475;2.3364;-2.9511
2.0558;2.2476;-2.9484
2.8430;2.1958;-2.9521
2.8037;2.0934;-2.9477
2.7337;2.1024;-2.9447
2.4886;2.1814;-2.9421
1.9585;2.3527;-2.9532
2.6230;2.2137;-2.9648
2.3418;2.1124;-2.9195
2.7043;2.1788;-2.9423
2.4815;2.1558;-2.9494
2.1765;2.2514;-2.9491
3.0028;2.1589;-2.9534
3.0216;2.0774;-2.9448
2.6491;2.1147;-2.9424
2.4622;2.1784;-2.9369
3.1670;2.1115;-2.9469
2.0906;2.3818;-2.9784
2.3558;2.0728;-2.9139
2.2283;2.1518;-2.9409
1.9797;2.2550;-2.9408
3.2996;2.0216;-2.9453
3.2963;1.9997;-2.9401
3.1487;2.0965;-2.9455
3.0682;2.1381;-2.9470
2.9197;2.0919;-2.9501
2.8288;2.1483;-2.9473
2.7358;2.1860;-2.9462
2.5805;2.1326;-2.9468
2.4738;2.1901;-2.9418
3.3680;2.1026;-2.9560
3.3553;1.9984;-2.9279
2.8076;2.1013;-2.9400
2.1615;2.1719;-2.9369
2.0235;2.2542;-2.9387
3.3422;2.1325;-2.9522
2.7445;2.2441;-2.9645
3.6711;1.5933;-2.8774
3.3747;1.5500;-2.8501
3.3211;1.9173;-2.9306
3.0138;2.0015;-2.9369
2.7671;2.0318;-2.9348
1.9688;2.2247;-2.9388
3.7423;1.7493;-2.8981
3.5831;1.9791;-2.9481
2.9437;2.1872;-2.9631
3.7663;1.8781;-2.9303
3.2621;1.9834;-2.9297
2.3304;2.0767;-2.9283
2.2138;2.1348;-2.9301
3.9021;1.8739;-2.9364
3.3814;1.5385;-2.8524
3.8878;1.8585;-2.9192
3.7426;1.8506;-2.9228
3.5963;1.8394;-2.9241
3.4257;1.5244;-2.8593
2.9042;1.9730;-2.9282
2.0811;2.1336;-2.9206
3.9347;1.8414;-2.9314
3.8732;1.8875;-2.9290
3.5697;1.8557;-2.9218
3.8425;1.8874;-2.9252
3.6893;1.8781;-2.9234
2.8144;2.0296;-2.9192
2.4828;2.0214;-2.9232
2.0728;2.1693;-2.9257
4.2224;1.9733;-2.9511
3.9008;1.9808;-2.9542
2.4091;2.1096;-2.9384
3.7509;2.0585;-2.9580
3.1623;2.1268;-2.9509
4.0105;1.9935;-2.9595
3.7803;2.0729;-2.9560
4.4570;1.8065;-2.9388
4.2066;1.9559;-2.9510
3.7189;1.9799;-2.9524
3.3206;2.0825;-2.9589
2.9018;2.1489;-2.9510
2.4655;2.2407;-2.9451
2.4210;2.1337;-2.9286
4.3543;1.9516;-2.9494
4.1930;1.9642;-2.9517
3.8065;2.0579;-2.9503
3.7085;1.9937;-2.9531
3.5456;1.9861;-2.9418
4.2127;1.9236;-2.9536
4.1538;1.9762;-2.9527
4.0542;1.9303;-2.9517
3.9920;1.9829;-2.9508
3.8300;1.9853;-2.9460
3.2786;2.0932;-2.9484
2.7936;2.1190;-2.9469
2.8704;2.1949;-2.9503
3.2153;2.1286;-2.9544
3.0362;2.1049;-2.9544
2.9432;2.1725;-2.9499
3.1051;1.9531;-2.9177
3.7288;2.0673;-2.9529
3.1965;2.1755;-2.9578
3.0066;2.1643;-2.9626
3.9577;1.9363;-2.9460
3.7174;1.9972;-2.9460
3.1859;2.0986;-2.9412
2.8126;2.0649;-2.9393
4.1422;1.8024;-2.9272
3.9617;1.7798;-2.9157
3.1941;1.8239;-2.9082
3.1043;1.8790;-2.9055
2.8266;1.9624;-2.9075
3.8201;2.0458;-2.9599
3.4245;1.5448;-2.8591
4.1299;1.8888;-2.9310
3.9450;1.8939;-2.9326
3.4367;1.5305;-2.8508
3.0955;1.9843;-2.9316
2.5857;2.0928;-2.9251
4.1059;1.9423;-2.9557
3.4097;1.5421;-2.8490
2.9539;2.1191;-2.9489
2.7459;2.1214;-2.9502
3.9994;1.8245;-2.9322
3.6822;1.9911;-2.9352
3.2061;2.0796;-2.9511
2.8929;2.1833;-2.9485
2.6797;2.1769;-2.9498
3.7930;1.9320;-2.9401
3.6100;1.8949;-2.9274
2.7381;2.1700;-2.9480
3.8103;1.9153;-2.9244
3.3696;1.7546;-2.8984
2.7946;2.1807;-2.9536
2.5817;2.1646;-2.9548
2.4496;2.2582;-2.9553
3.3903;1.5013;-2.8394
3.3423;1.8653;-2.9130
3.0723;1.9420;-2.9240
2.9709;2.0619;-2.9303
3.3749;1.5212;-2.8571
3.1274;2.1427;-2.9517
2.2895;2.0938;-2.9255
3.8018;2.0137;-2.9464
3.3900;1.5184;-2.8539
3.2378;2.0247;-2.9455
2.9316;2.1237;-2.9463
2.5079;2.1239;-2.9402
4.0045;2.0161;-2.9573
3.8900;1.9206;-2.9466
3.7072;1.9070;-2.9339
3.4023;1.5138;-2.8508
2.4961;2.2190;-2.9501
2.4503;2.1161;-2.9230
4.1150;1.9603;-2.9488
3.1621;2.0722;-2.9497
2.9576;2.0948;-2.9492
3.9988;1.9102;-2.9351
3.8180;1.9369;-2.9360
3.4146;1.5066;-2.8585
3.8294;2.0185;-2.9466
3.6376;2.0517;-2.9479
2.8250;2.1740;-2.9440
4.2710;1.8710;-2.9353
4.0890;1.8917;-2.9300
3.7216;1.9534;-2.9297
2.8537;2.0114;-2.9311
2.6535;2.0421;-2.9299
4.1697;1.8490;-2.9426
3.6196;1.9484;-2.9433
2.6306;2.1358;-2.9493
4.5632;1.8554;-2.9400
3.1459;1.9947;-2.9280
2.7543;2.0735;-2.9294
4.6383;1.8015;-2.9333
4.4604;1.8408;-2.9331
4.2840;1.8920;-2.9392
4.1022;1.9419;-2.9440
3.9159;1.9910;-2.9478
3.7246;2.0332;-2.9476
2.8448;2.1070;-2.9477
2.6437;2.1531;-2.9488
4.6981;1.7422;-2.9272
4.5236;1.7849;-2.9272
4.3510;1.8399;-2.9339
4.1736;1.8952;-2.9400
3.8030;1.9944;-2.9445
2.9373;2.0836;-2.9436
4.7659;1.6887;-2.9294
4.7167;1.7873;-2.9294
4.5446;1.8482;-2.9373
4.0699;1.9082;-2.9496
3.9940;2.0134;-2.9475
4.4800;1.8265;-2.9430
4.1188;1.9477;-2.9538
3.9322;2.0055;-2.9569
3.4553;1.7223;-2.8802
2.8797;2.2037;-2.9552
5.0877;1.7202;-2.9306
4.5837;1.7496;-2.9328
4.2293;1.8684;-2.9414
3.4146;1.5411;-2.8609
2.9607;2.0289;-2.9362
5.3261;1.6870;-2.9274
5.1758;1.6292;-2.9238
5.0003;1.6911;-2.9280
4.6440;1.8175;-2.9369
4.2807;1.9499;-2.9477
4.0947;2.0122;-2.9505
3.4462;1.5889;-2.8648
5.0429;1.7314;-2.9343
4.8600;1.7963;-2.9359
4.7323;1.7504;-2.9395
4.5525;1.8129;-2.9406
4.3719;1.8760;-2.9418
4.1907;1.9409;-2.9438
5.1110;1.6705;-2.9301
4.9291;1.7360;-2.9281
4.8028;1.6965;-2.9324
4.2746;1.9122;-2.9395
3.9846;1.9185;-2.9476
3.8087;1.9815;-2.9457
5.5521;1.6610;-2.9301
5.3807;1.5970;-2.9305
5.1989;1.6677;-2.9255
4.8880;1.7022;-2.9242
4.4148;1.8016;-2.9312
4.1401;1.8548;-2.9410
3.9686;1.9314;-2.9415
5.2125;1.6430;-2.9319
4.9066;1.6828;-2.9309
4.7342;1.7614;-2.9302
4.4391;1.7917;-2.9393
4.2693;1.8783;-2.9436
4.0957;1.9612;-2.9451
3.9941;1.9239;-2.9470
3.4716;1.9512;-2.9382
5.2622;1.6322;-2.9323
5.0905;1.7053;-2.9318
4.7910;1.7372;-2.9324
4.6180;1.8109;-2.9323
4.3246;1.8312;-2.9412
4.1517;1.9133;-2.9459
5.3201;1.6713;-2.9274
5.1892;1.6314;-2.9304
5.0200;1.6948;-2.9300
4.8468;1.7570;-2.9283
4.5472;1.7614;-2.9341
4.3751;1.8307;-2.9367
4.1997;1.9031;-2.9403
4.0202;1.9767;-2.9436
3.7378;1.9968;-2.9445
3.4640;1.9743;-2.9382
5.2310;1.6773;-2.9261
4.5898;1.7805;-2.9299
4.3094;1.8002;-2.9358
3.2364;1.9066;-2.9082
5.1252;1.6462;-2.9299
4.6259;1.7839;-2.9340
3.9091;1.9848;-2.9416
3.8089;1.9279;-2.9423
3.6232;1.9659;-2.9370
2.9818;1.9793;-2.9146
4.8682;1.6887;-2.9313
4.7044;1.7220;-2.9314
4.6475;1.8104;-2.9303
4.4756;1.8495;-2.9322
4.3691;1.7987;-2.9364
4.2997;1.8904;-2.9346
4.1951;1.8379;-2.9387
4.0169;1.8781;-2.9411
3.8342;1.9173;-2.9423
2.6558;2.1432;-2.9358
4.7825;1.6811;-2.9200
4.6277;1.7155;-2.9269
4.4666;1.7473;-2.9318
4.2380;1.8930;-2.9354
3.8744;1.9637;-2.9441
3.0881;2.0842;-2.9452
4.4056;1.7518;-2.9160
4.0752;1.8045;-2.9299
3.9973;1.8888;-2.9285
3.8163;1.9105;-2.9314
2.7006;2.1400;-2.9349
2.4710;2.1793;-2.9437
4.4888;1.9137;-2.9446
3.7517;1.8876;-2.9256
3.5704;1.8743;-2.9213
2.7393;2.0737;-2.9295
3.6319;2.0399;-2.9491
3.2227;2.0881;-2.9445
3.0981;2.1830;-2.9549
3.3778;1.5248;-2.8424
3.1764;2.1395;-2.9515
3.7223;1.8968;-2.9226
2.8317;2.0163;-2.9186
2.4876;2.0417;-2.9179
2.0836;2.1263;-2.9292
3.9006;1.8093;-2.9272
3.8175;1.8593;-2.9243
3.6453;1.8270;-2.9232
2.9511;1.9964;-2.9263
2.4168;1.9798;-2.9167
2.0651;2.1895;-2.9335
4.2852;1.8683;-2.9331
4.1159;1.8376;-2.9283
3.6909;1.8610;-2.9227
3.5163;1.8157;-2.9093
3.1151;1.9604;-2.9218
1.8544;2.2683;-2.9346
4.3933;1.7637;-2.9302
4.3291;1.8332;-2.9260
4.1608;1.8155;-2.9258
3.7346;1.8398;-2.9281
3.4626;1.8851;-2.9152
3.1647;1.9563;-2.9296
2.8427;2.0333;-2.9299
2.1071;2.1991;-2.9433
4.4433;1.7392;-2.9258
4.1364;1.8745;-2.9294
3.7850;1.8593;-2.9330
3.5128;1.8933;-2.9221
4.7234;1.6551;-2.9142
4.6631;1.7083;-2.9130
4.5647;1.6527;-2.9134
4.5011;1.7077;-2.9135
4.1059;1.8003;-2.9236
3.4985;1.8483;-2.9148
3.4566;1.5800;-2.8692
4.7860;1.5973;-2.9127
4.5732;1.6764;-2.9097
4.3447;1.7587;-2.9195
4.1041;1.8644;-2.9266
3.9291;1.8773;-2.9298
3.6600;1.9543;-2.9272
4.9481;1.6130;-2.9197
4.4025;1.7372;-2.9134
3.9906;1.8497;-2.9197
3.9039;1.7985;-2.9201
3.7368;1.8096;-2.9160
3.6481;1.8741;-2.9127
4.9808;1.5710;-2.9124
4.9271;1.6360;-2.9111
4.4453;1.7291;-2.9222
4.1180;1.7912;-2.9290
5.2747;1.5380;-2.9125
4.6389;1.6744;-2.9173
4.5751;1.7456;-2.9157
4.4802;1.7136;-2.9219
4.4121;1.7858;-2.9202
4.2482;1.8283;-2.9263
4.1591;1.7937;-2.9320
3.9155;1.9006;-2.9292
3.8334;1.8576;-2.9304
3.7490;1.9282;-2.9251
3.5089;1.9150;-2.9246
3.4457;1.8312;-2.9096
5.4413;1.5745;-2.9156
4.8902;1.5774;-2.9136
4.7339;1.6128;-2.9105
4.0421;1.8755;-2.9310
3.8808;1.9169;-2.9311
5.4336;1.5673;-2.9146
5.1616;1.5893;-2.9137
4.8888;1.5881;-2.9086
4.7907;1.5610;-2.9073
4.6426;1.6066;-2.9080
4.5853;1.6819;-2.9100
4.4952;1.6559;-2.9114
4.4338;1.7330;-2.9137
4.3472;1.7076;-2.9164
4.2814;1.7856;-2.9182
4.1276;1.8368;-2.9215
3.6723;1.8565;-2.9266
3.5895;1.9554;-2.9299
5.3269;1.6632;-2.9374
5.1626;1.7107;-2.9312
5.0572;1.6922;-2.9358
4.6411;1.7662;-2.9404
3.9411;1.9799;-2.9582
3.7856;2.0303;-2.9559
5.6081;1.5756;-2.9199
5.4851;1.5493;-2.9117
4.8263;1.6555;-2.9118
4.6825;1.7116;-2.9154
4.1574;1.8506;-2.9303
5.3076;1.5745;-2.9114
5.1592;1.5870;-2.9032
5.5358;1.5770;-2.9262
5.4492;1.5762;-2.9219
5.3583;1.5689;-2.9208
5.1946;1.5616;-2.9175
5.0808;1.6114;-2.9091
5.3720;1.5375;-2.9160
5.2603;1.6003;-2.9136
5.7269;1.4853;-2.9169
5.7183;1.5652;-2.9200
5.6133;1.5603;-2.9166
5.5237;1.5643;-2.9118
5.3491;1.5679;-2.9111
5.1890;1.5734;-2.9116
5.1091;1.5713;-2.9117
5.9258;1.5570;-2.9257
5.8444;1.5808;-2.9403
5.6215;1.5681;-2.9133
5.3531;1.5800;-2.9145
5.1199;1.5973;-2.9141
5.0455;1.6022;-2.9200
4.8738;1.6827;-2.9203
4.8038;1.6830;-2.9225
5.9386;1.5485;-2.9333
5.8187;1.5447;-2.9242
5.7182;1.5503;-2.9143
5.6156;1.5515;-2.9118
5.3625;1.5832;-2.9170
4.8798;1.6950;-2.9229
4.6462;1.7836;-2.9257
5.8938;1.5577;-2.9256
5.7742;1.5539;-2.9158
5.6902;1.4795;-2.9170
5.6842;1.5701;-2.9182
5.5853;1.5759;-2.9200
5.5038;1.5939;-2.9237
5.4125;1.5997;-2.9261
5.3312;1.6103;-2.9241
5.2441;1.6114;-2.9218
5.0937;1.6318;-2.9268
5.0674;1.7145;-2.9238
5.0251;1.6455;-2.9296
4.9906;1.7183;-2.9268
4.8498;1.7306;-2.9285
4.6579;1.7514;-2.9291
4.5956;1.7566;-2.9340
4.5588;1.8376;-2.9336
4.5390;1.7702;-2.9376
4.4974;1.8433;-2.9402
5.6758;1.5750;-2.9311
5.4782;1.5799;-2.9183
5.2340;1.6143;-2.9271
5.2010;1.6898;-2.9233
5.1276;1.7054;-2.9276
5.0472;1.7075;-2.9303
4.9008;1.7177;-2.9319
4.8343;1.7269;-2.9309
4.7645;1.7266;-2.9314
4.6376;1.7381;-2.9354
4.4813;1.8370;-2.9439
5.6334;1.6000;-2.9231
5.5462;1.5087;-2.9148
5.4400;1.6074;-2.9191
5.3480;1.6104;-2.9222
5.2687;1.6228;-2.9230
5.0048;1.7313;-2.9324
4.8582;1.7408;-2.9349
4.7215;1.7511;-2.9400
4.6186;1.8388;-2.9420
4.5524;1.8339;-2.9414
4.4314;1.8418;-2.9456
5.8896;1.7396;-2.9523
5.7814;1.6331;-2.9483
5.5667;1.5225;-2.9130
5.4660;1.6323;-2.9257
5.2894;1.6470;-2.9307
5.2002;1.6468;-2.9321
5.1238;1.6588;-2.9352
4.9329;1.7451;-2.9322
4.8617;1.7521;-2.9305
4.7864;1.7474;-2.9295
4.7203;1.7561;-2.9314
4.5895;1.7657;-2.9362
4.4876;1.8556;-2.9405
4.4241;1.8558;-2.9453
5.6102;1.4597;-2.9131
5.4195;1.5716;-2.9187
5.3286;1.5752;-2.9241
5.2477;1.5849;-2.9250
5.1378;1.6746;-2.9219
5.0534;1.6733;-2.9242
4.9788;1.6796;-2.9220
4.9004;1.6777;-2.9237
4.8308;1.6844;-2.9238
4.7574;1.6797;-2.9227
4.6933;1.6889;-2.9239
4.5253;1.7716;-2.9270
4.4654;1.7830;-2.9328
4.4232;1.8650;-2.9349
5.0088;1.7458;-2.9424
4.9252;1.7396;-2.9424
4.8143;1.8274;-2.9384
4.7424;1.8309;-2.9382
4.6671;1.8226;-2.9379
4.6010;1.8304;-2.9399
4.5315;1.8272;-2.9437
5.7083;1.4568;-2.9019
5.6014;1.4529;-2.9000
4.9911;1.5648;-2.9089
4.8452;1.5670;-2.9076
4.7436;1.6450;-2.9030
4.6109;1.6476;-2.9064
4.4521;1.7431;-2.9144
4.5759;1.8608;-2.9379
4.4415;1.8506;-2.9378
5.9993;1.6464;-2.9524
5.8505;1.6176;-2.9339
5.7308;1.4994;-2.9174
5.6296;1.5007;-2.9122
5.5302;1.5010;-2.9173
5.4223;1.5986;-2.9194
5.0602;1.7079;-2.9311
4.9014;1.7069;-2.9337
4.8214;1.6970;-2.9325
4.7511;1.6978;-2.9306
4.5759;1.7714;-2.9281
4.5127;1.7757;-2.9287
4.4463;1.7679;-2.9301
5.9824;1.6785;-2.9534
5.7338;1.6571;-2.9394
5.5287;1.5416;-2.9237
5.4222;1.6449;-2.9301
5.3236;1.6378;-2.9321
5.1309;1.7400;-2.9367
5.9912;1.6311;-2.9467
5.7496;1.5075;-2.9257
5.6252;1.4886;-2.9138
5.5206;1.4816;-2.9019
5.2393;1.5829;-2.9100
5.1518;1.5799;-2.9141
5.0757;1.5867;-2.9167
4.8909;1.6646;-2.9156
4.8206;1.6673;-2.9145
4.7455;1.6584;-2.9145
4.5497;1.6592;-2.9170
6.1712;1.8044;-2.9802
6.0292;1.7892;-2.9679
5.8822;1.6438;-2.9470
5.7336;1.6080;-2.9258
5.5282;1.6075;-2.9313
5.3256;1.7108;-2.9330
5.2285;1.7018;-2.9353
5.1456;1.7059;-2.9375
4.7891;1.7692;-2.9332
4.7180;1.7676;-2.9320
4.6434;1.7558;-2.9320
4.5086;1.7396;-2.9266
5.6416;1.5551;-2.9274
5.4315;1.6538;-2.9290
5.3315;1.6458;-2.9324
4.8055;1.7155;-2.9337
4.5591;1.7861;-2.9349
6.1937;1.8404;-2.9829
6.0242;1.7996;-2.9676
5.8846;1.6596;-2.9532
5.3057;1.6947;-2.9295
5.1272;1.6902;-2.9388
5.0134;1.7742;-2.9358
4.7718;1.7533;-2.9346
4.6923;1.7378;-2.9341
4.6234;1.7367;-2.9335
4.5211;1.8171;-2.9340
4.4496;1.7978;-2.9313
6.0148;1.6578;-2.9416
5.7647;1.5232;-2.9228
5.4281;1.5912;-2.9157
5.1298;1.6670;-2.9217
4.9583;1.6514;-2.9221
4.8740;1.6396;-2.9243
4.7658;1.7140;-2.9202
4.5509;1.6984;-2.9237
4.4498;1.7781;-2.9266
5.6625;1.5240;-2.9239
5.5381;1.6068;-2.9212
5.4387;1.6016;-2.9311
5.2308;1.6865;-2.9337
5.1338;1.6717;-2.9364
4.5793;1.7827;-2.9361
4.5096;1.7791;-2.9380
4.4712;1.8605;-2.9371
4.4027;1.8530;-2.9372
5.6749;1.5580;-2.9323
5.5556;1.5367;-2.9182
5.2161;1.6882;-2.9252
5.1303;1.6871;-2.9284
4.9196;1.7479;-2.9305
4.8386;1.7415;-2.9316
4.7520;1.7210;-2.9315
4.6773;1.7165;-2.9321
4.3809;1.8519;-2.9386
4.3138;1.8550;-2.9469
4.2713;1.9396;-2.9481
6.1566;1.8023;-2.9740
5.9886;1.7559;-2.9599
5.4895;1.5542;-2.9210
5.2645;1.6137;-2.9223
5.1816;1.6167;-2.9289
5.1485;1.6959;-2.9260
4.8522;1.7466;-2.9286
4.7720;1.7382;-2.9291
4.6880;1.7198;-2.9315
4.5754;1.7934;-2.9322
4.5034;1.7886;-2.9342
4.2065;1.9349;-2.9522
5.5257;1.5856;-2.9251
5.2980;1.6446;-2.9190
5.2048;1.6354;-2.9299
4.9975;1.7018;-2.9303
4.5907;1.8095;-2.9298
4.4386;1.7816;-2.9341
4.3263;1.8565;-2.9385
4.2127;1.9345;-2.9444
4.1408;1.9150;-2.9491
6.1447;1.7849;-2.9791
5.9734;1.7324;-2.9629
5.6843;1.6544;-2.9346
5.5703;1.6359;-2.9278
5.3599;1.6024;-2.9300
5.0445;1.6387;-2.9288
5.0055;1.7108;-2.9231
4.7135;1.7494;-2.9275
4.9710;1.6557;-2.9295
4.8471;1.7161;-2.9253
4.2501;1.8601;-2.9406
4.1322;1.9291;-2.9439
5.5360;1.6193;-2.9256
5.4251;1.5931;-2.9276
5.0754;1.7036;-2.9246
4.6842;1.7003;-2.9294
4.5642;1.7617;-2.9295
4.3705;1.8163;-2.9366
4.3237;1.8945;-2.9358
4.1294;1.9445;-2.9402
4.0557;1.9172;-2.9439
5.2217;1.6721;-2.9258
5.1333;1.6614;-2.9309
4.7012;1.7317;-2.9284
4.4950;1.7649;-2.9329
4.4561;1.8562;-2.9325
4.2523;1.8922;-2.9398
4.0575;1.9337;-2.9416
3.9344;1.9969;-2.9444
5.5152;1.6101;-2.9188
5.4119;1.5869;-2.9257
5.2724;1.6317;-2.9148
4.6316;1.7418;-2.9198
4.5469;1.7134;-2.9229
4.4270;1.7739;-2.9266
4.2323;1.8188;-2.9330
4.0365;1.8448;-2.9364
3.8493;1.8870;-2.9404
3.7934;1.9574;-2.9381
5.3318;1.6163;-2.9156
5.1195;1.6604;-2.9225
4.7684;1.7312;-2.9196
4.5629;1.7685;-2.9212
4.2833;1.7812;-2.9324
4.1077;1.9094;-2.9318
4.0361;1.8910;-2.9349
3.9109;1.9446;-2.9349
5.0752;1.6193;-2.9263
4.8646;1.6497;-2.9260
4.8212;1.7149;-2.9223
4.7368;1.6930;-2.9211
4.6117;1.7425;-2.9208
4.4041;1.7644;-2.9272
3.9542;1.9038;-2.9363
3.8264;1.9567;-2.9378
3.6285;1.9734;-2.9423
4.8709;1.7018;-2.9224
4.7425;1.7460;-2.9210
4.3252;1.7856;-2.9293
4.0701;1.8851;-2.9347
3.9979;1.8625;-2.9377
3.6072;2.0088;-2.9425
3.5394;1.9703;-2.9460
5.0619;1.6688;-2.9276
4.9729;1.6428;-2.9264
4.8429;1.6776;-2.9223
4.6267;1.6776;-2.9226
4.5866;1.7559;-2.9204
4.5007;1.7165;-2.9221
4.3755;1.7610;-2.9255
4.2488;1.8076;-2.9299
4.1199;1.8538;-2.9336
3.7237;1.9803;-2.9347
5.0394;1.6155;-2.9212
5.0066;1.6883;-2.9184
4.7021;1.6481;-2.9206
4.5271;1.7406;-2.9190
4.4501;1.7151;-2.9235
4.3997;1.7798;-2.9239
4.2699;1.8181;-2.9277
3.7988;1.8968;-2.9368
3.5307;1.9573;-2.9325
4.6524;1.6558;-2.9215
4.4806;1.7527;-2.9215
4.3516;1.7848;-2.9272
4.1617;1.8791;-2.9314
4.0867;1.8470;-2.9362
4.0251;1.9094;-2.9345
3.9512;1.8736;-2.9372
3.8868;1.9352;-2.9346
3.8147;1.8984;-2.9369
3.7477;1.9607;-2.9343
3.4772;1.8799;-2.9273
4.7740;1.5946;-2.9113
4.6111;1.6807;-2.9146
4.5618;1.7350;-2.9154
4.4854;1.7034;-2.9197
4.3032;1.7827;-2.9260
4.0353;1.8199;-2.9285
3.7638;1.8547;-2.9290
3.6967;1.9299;-2.9277
3.6271;1.8723;-2.9293
3.5562;1.9488;-2.9284
3.4901;1.8874;-2.9279
4.5598;1.6883;-2.9205
4.5151;1.7551;-2.9213
4.4629;1.8101;-2.9237
4.0578;1.8480;-2.9318
3.9964;1.9216;-2.9319
3.8549;1.9296;-2.9310
3.4299;1.9466;-2.9237
3.1784;1.8187;-2.9055
3.0478;1.6123;-2.8679
4.4148;1.8206;-2.9292
4.2202;1.8734;-2.9314
4.1455;1.8279;-2.9341
4.0089;1.8287;-2.9346
3.8770;1.9476;-2.9334
3.8036;1.8802;-2.9356
3.7337;1.9501;-2.9348
4.2378;1.8327;-2.9327
3.6887;1.9174;-2.9274
4.3892;1.8166;-2.9320
3.9267;1.8290;-2.9291
3.7196;1.8575;-2.9277
3.5041;1.9002;-2.9237
3.4666;1.6478;-2.8787
3.0332;2.0021;-2.9348
2.9413;2.0483;-2.9301
2.7871;2.0309;-2.9293
3.7573;1.9212;-2.9315
4.0706;1.9680;-2.9513
4.0006;1.9952;-2.9462
2.4626;2.0717;-2.9182
2.0318;2.1549;-2.9250
3.8567;1.9446;-2.9404
3.7841;1.9758;-2.9389
3.7177;1.8988;-2.9383
3.6428;1.9276;-2.9359
3.4707;1.6006;-2.8674
2.8879;2.0963;-2.9400
2.4929;2.1626;-2.9414
2.0513;2.2356;-2.9443
3.5768;1.9168;-2.9311
3.4967;1.9584;-2.9235
3.0748;2.0646;-2.9374
2.1150;2.2865;-2.9559
1.6033;2.3721;-2.9605
3.6632;1.9900;-2.9476
3.4667;1.7664;-2.8876
2.8982;2.1268;-2.9463
2.3504;2.0790;-2.9256
3.6135;1.9931;-2.9378
2.8381;2.1136;-2.9339
1.9569;2.2287;-2.9474
3.4444;1.5011;-2.8574
3.8183;1.9447;-2.9495
3.3704;1.5359;-2.8597
1.5148;2.3822;-2.9587
3.6022;1.8504;-2.9220
3.5220;1.8918;-2.9161
3.2972;1.8433;-2.9037
1.6468;2.3273;-2.9503
1.4445;2.4223;-2.9512
3.1476;1.8889;-2.9182
2.5340;2.0202;-2.9143
2.9660;2.0108;-2.9327
1.7077;2.2876;-2.9510
3.6208;1.8468;-2.9073
3.3635;1.5347;-2.8499
2.9221;1.9432;-2.9081
1.8334;2.1526;-2.9243
3.7871;1.7879;-2.9052
3.5606;1.7934;-2.9044
3.7020;1.8809;-2.9307
3.4612;1.8491;-2.9053
1.7366;2.2340;-2.9328
3.9106;1.7614;-2.9087
3.6896;1.7591;-2.9047
3.6100;1.7865;-2.9028
4.2390;1.7001;-2.8988
4.2082;1.8898;-2.9328
4.3252;1.7994;-2.9292
4.2592;1.8236;-2.9245
4.0449;1.8399;-2.9238
3.4964;1.8923;-2.9215
3.0306;2.0203;-2.9246
4.4396;1.8293;-2.9381
4.2851;1.7729;-2.9139
4.2067;1.7220;-2.9162
3.9998;1.7214;-2.9118
3.9330;1.7629;-2.9081
2.2246;2.0534;-2.9116
4.3944;1.8586;-2.9457
4.9066;1.6885;-2.9223
4.5648;1.7455;-2.9349
4.3481;1.8274;-2.9343
3.9643;1.9974;-2.9470
5.5108;1.5078;-2.9146
4.6444;1.5912;-2.8926
3.9810;1.8638;-2.9208
4.8032;1.4783;-2.8809
4.7038;1.4595;-2.8817
4.6180;1.4576;-2.8821
4.8062;1.7038;-2.9253
4.2298;1.8755;-2.9334
4.1490;1.8718;-2.9379
4.8551;1.6639;-2.9276
4.6039;1.7603;-2.9266
4.2790;1.8571;-2.9333
4.1973;1.8570;-2.9364
5.2278;1.4737;-2.8846
4.6674;1.5800;-2.8903
4.5708;1.5696;-2.8951
4.3198;1.6922;-2.9081
4.2409;1.6984;-2.9118
4.9833;1.6886;-2.9286
4.5358;1.8173;-2.9291
4.4383;1.8052;-2.9351
4.3532;1.8143;-2.9412
5.1581;1.6372;-2.9233
5.0313;1.6208;-2.9252
4.6789;1.7475;-2.9209
4.4855;1.7327;-2.9251
4.4008;1.7404;-2.9281
4.4100;1.8592;-2.9475
5.1249;1.6748;-2.9314
4.5653;1.8048;-2.9329
4.5894;1.7218;-2.9237
4.9224;1.6879;-2.9333
5.1224;1.7405;-2.9310
4.8674;1.7871;-2.9413
4.9379;1.6155;-2.9154
4.8399;1.6237;-2.9149
4.9389;1.7605;-2.9368
5.1483;1.6470;-2.9301
5.2518;1.7442;-2.9365
5.0033;1.7184;-2.9332
4.8825;1.6959;-2.9335
5.3238;1.6004;-2.9249
5.0652;1.6807;-2.9238
5.2053;1.5024;-2.9022
4.1722;1.8724;-2.9455
4.2122;1.8359;-2.9370
4.5119;1.7973;-2.9345
3.3948;1.6097;-2.8574
4.5338;1.7612;-2.9298
3.7775;1.9592;-2.9419
3.5214;2.0045;-2.9386
4.2079;1.9216;-2.9398
3.9475;1.9754;-2.9433
4.6917;1.8207;-2.9337
4.0544;1.8753;-2.9442
3.5587;1.9896;-2.9368
4.8675;1.7363;-2.9247
4.5230;1.7902;-2.9368
4.2884;1.8793;-2.9320
4.5076;1.7622;-2.9316
4.7276;1.7141;-2.9253
4.4351;1.7239;-2.9182
4.6684;1.7062;-2.9304
4.1344;1.8260;-2.9323
3.8620;1.8855;-2.9328
3.5870;1.9400;-2.9315
3.4500;1.7505;-2.9006
4.6895;1.7489;-2.9257
3.0582;2.0420;-2.9264
3.8177;1.9268;-2.9350
4.1635;1.9105;-2.9418
3.7772;1.9457;-2.9403
3.4223;2.0737;-2.9431
2.6590;2.1226;-2.9412
3.5583;1.9534;-2.9373
4.1095;1.7820;-2.9253
3.5238;1.9777;-2.9423
4.9233;1.4443;-2.8822
4.0837;1.8659;-2.9417
3.9686;1.8537;-2.9351
7.7759;1.2958;-2.9298
7.2776;1.3331;-2.9211
7.2889;1.4567;-2.9491
6.9711;1.4448;-2.9485
6.9619;1.4432;-2.9406
6.9484;1.4965;-2.9385
7.2882;1.4274;-2.9491
7.3456;1.4760;-2.9459
6.8647;1.4492;-2.9422
7.2305;1.4794;-2.9470
7.0214;1.4459;-2.9456
2.8275;2.0587;-2.9239
2.1763;2.1000;-2.9285
4.1671;1.7878;-2.9177
4.0160;1.7445;-2.9181
4.0017;1.7993;-2.9218
3.7888;1.8785;-2.9316
4.1271;1.8622;-2.9428
4.1105;1.9270;-2.9489
6.7853;1.4107;-2.9322
6.8680;1.4174;-2.9379
7.2265;1.4722;-2.9573
6.3936;1.3165;-2.9025
6.5938;1.4727;-2.9431
7.3544;1.4594;-2.9477
7.1283;1.4759;-2.9475
6.8993;1.4855;-2.9446
6.4371;1.4729;-2.9264
7.3414;1.4887;-2.9486
7.1110;1.4910;-2.9465
6.8818;1.4945;-2.9449
7.3137;1.4552;-2.9523
7.0881;1.4455;-2.9489
6.3128;1.4878;-2.9191
7.2616;1.4715;-2.9427
6.8254;1.4519;-2.9418
6.6557;1.1788;-2.8779
6.4434;1.5281;-2.9359
6.5735;1.5350;-2.9351
6.3604;1.5036;-2.9357
6.5550;1.4565;-2.9306
6.4669;1.5617;-2.9366
3.6988;1.7922;-2.9153
2.7409;1.8995;-2.9057
6.1937;1.4745;-2.9192
6.0822;1.5825;-2.9383
5.9694;1.6365;-2.9433
6.2653;1.4486;-2.9169
6.1579;1.5479;-2.9329
6.0491;1.5932;-2.9345
6.4226;1.4065;-2.9216
6.4969;1.4748;-2.9390
6.4014;1.5238;-2.9442
6.2973;1.6061;-2.9483
6.1897;1.6535;-2.9476
5.8893;1.6095;-2.9333
6.6468;1.1660;-2.8759
6.5571;1.5111;-2.9305
6.4620;1.5782;-2.9423
6.1751;1.5827;-2.9476
6.0628;1.6305;-2.9456
6.5031;1.5862;-2.9460
6.3275;1.4918;-2.9388
6.2204;1.5629;-2.9359
5.8041;1.5878;-2.9237
6.5298;1.5813;-2.9570
6.4282;1.6594;-2.9568
6.1369;1.6262;-2.9557
6.0166;1.7009;-2.9507
5.7172;1.6112;-2.9243
6.5510;1.5766;-2.9541
6.4507;1.6540;-2.9537
6.1628;1.6160;-2.9494
5.8642;1.5784;-2.9308
5.7019;1.4357;-2.8995
6.5562;1.6098;-2.9481
6.3823;1.5323;-2.9478
6.2760;1.6082;-2.9477
6.1672;1.6536;-2.9445
5.9885;1.5568;-2.9367
5.6934;1.5064;-2.9116
6.5460;1.6544;-2.9573
6.4713;1.5112;-2.9460
6.3730;1.5614;-2.9518
6.2656;1.6378;-2.9534
6.1565;1.6798;-2.9500
5.9793;1.5798;-2.9432
5.8566;1.6420;-2.9351
5.6855;1.5242;-2.9197
6.5366;1.4787;-2.9295
6.0615;1.5687;-2.9370
5.9498;1.6018;-2.9324
5.6525;1.5547;-2.9199
6.6846;1.2129;-2.8850
6.4999;1.5340;-2.9317
6.2376;1.5124;-2.9374
6.1348;1.5447;-2.9381
6.0218;1.5997;-2.9335
6.5314;1.5912;-2.9459
6.3760;1.4670;-2.9294
6.2807;1.5001;-2.9316
6.1751;1.5641;-2.9359
6.0701;1.5959;-2.9372
5.7903;1.5347;-2.9270
5.6802;1.5429;-2.9133
6.1135;1.5808;-2.9487
6.0081;1.6070;-2.9491
5.8907;1.6577;-2.9453
6.4869;1.4961;-2.9329
6.3966;1.5511;-2.9378
6.3043;1.5812;-2.9408
6.2021;1.6401;-2.9449
6.1004;1.6676;-2.9465
6.4569;1.5199;-2.9391
6.3723;1.5428;-2.9438
6.2792;1.5860;-2.9446
6.1857;1.6059;-2.9445
6.0822;1.6492;-2.9431
5.9803;1.6673;-2.9426
6.3139;1.6303;-2.9452
6.2258;1.6438;-2.9456
5.7833;1.5801;-2.9219
6.1042;1.6198;-2.9428
6.0054;1.6521;-2.9402
5.6578;1.5636;-2.9313
6.1735;1.4946;-2.9236
6.0880;1.5086;-2.9155
6.0350;1.4660;-2.9250
5.9465;1.4854;-2.9230
5.7609;1.5115;-2.9238
5.8379;1.4192;-2.9051
5.7508;1.4239;-2.9097
5.6499;1.4471;-2.9111
6.0194;1.5532;-2.9266
5.7407;1.5549;-2.9328
5.5439;1.5300;-2.9223
6.0871;1.5035;-2.9289
6.2509;1.5704;-2.9335
6.3048;1.4643;-2.9325
6.1647;1.5849;-2.9389
5.9892;1.5883;-2.9427
5.7125;1.5556;-2.9298
5.6041;1.5549;-2.9235
5.4990;1.5418;-2.9238
6.2436;1.6761;-2.9527
6.3025;1.5544;-2.9458
6.1581;1.6797;-2.9602
6.0645;1.6894;-2.9596
5.8820;1.6716;-2.9460
5.7943;1.6464;-2.9334
5.3628;1.4753;-2.9004
6.3577;1.6097;-2.9533
6.2201;1.7265;-2.9590
6.2822;1.6006;-2.9538
6.0417;1.7226;-2.9534
6.0194;1.6046;-2.9498
5.9344;1.5857;-2.9436
5.8394;1.5781;-2.9311
5.7475;1.5594;-2.9236
5.6417;1.5560;-2.9139
5.5399;1.5401;-2.9106
6.4086;1.6610;-2.9524
6.4582;1.5422;-2.9440
6.3332;1.6516;-2.9515
6.3885;1.5278;-2.9386
6.2457;1.6646;-2.9534
6.3070;1.5387;-2.9416
6.2296;1.5307;-2.9432
6.0709;1.6589;-2.9458
5.9849;1.6430;-2.9406
5.6793;1.4977;-2.9217
5.5706;1.4948;-2.9131
6.4793;1.4803;-2.9312
6.3475;1.6133;-2.9487
6.4030;1.4900;-2.9340
6.1778;1.6205;-2.9531
6.0940;1.6084;-2.9488
6.0020;1.6058;-2.9391
5.9146;1.5892;-2.9333
5.8143;1.5882;-2.9245
6.7152;1.2764;-2.8964
6.5164;1.4717;-2.9277
6.6309;1.1786;-2.8780
6.3373;1.7141;-2.9611
6.3951;1.5826;-2.9443
6.4452;1.4710;-2.9346
6.2458;1.7291;-2.9629
6.3080;1.6017;-2.9521
6.3671;1.4779;-2.9352
6.1600;1.7196;-2.9592
6.2272;1.5944;-2.9529
6.1343;1.6054;-2.9541
6.0491;1.5922;-2.9488
5.9553;1.5894;-2.9388
5.7649;1.5707;-2.9231
5.6724;1.5500;-2.9123
6.8906;1.3637;-2.9225
6.8127;1.4348;-2.9243
6.8356;1.3595;-2.9268
6.3785;1.6764;-2.9610
6.4336;1.5512;-2.9454
6.2978;1.6688;-2.9608
6.3592;1.5399;-2.9415
6.2065;1.6783;-2.9597
6.1209;1.6668;-2.9549
6.0246;1.6706;-2.9490
5.6263;1.5120;-2.9184
6.9075;1.4365;-2.9261
6.9264;1.3656;-2.9290
6.7885;1.4404;-2.9309
6.7276;1.4346;-2.9332
6.3706;1.7992;-2.9791
6.4810;1.5381;-2.9423
6.5246;1.4378;-2.9334
6.2859;1.7912;-2.9756
6.3480;1.6603;-2.9643
6.4050;1.5374;-2.9470
6.2555;1.6783;-2.9701
6.0772;1.6705;-2.9592
5.9900;1.6547;-2.9527
5.6890;1.6428;-2.9290
5.5861;1.6316;-2.9263
6.9469;1.4162;-2.9343
6.8906;1.4150;-2.9390
6.8063;1.4927;-2.9334
6.8305;1.4168;-2.9365
6.7439;1.4849;-2.9315
6.7713;1.4073;-2.9351
6.7078;1.4057;-2.9294
6.4159;1.5961;-2.9465
6.4635;1.4946;-2.9406
6.3303;1.6084;-2.9489
6.3835;1.5037;-2.9426
6.2490;1.6019;-2.9477
5.9779;1.6012;-2.9365
5.8878;1.5893;-2.9311
5.7851;1.5923;-2.9246
5.6911;1.5775;-2.9188
5.4715;1.5744;-2.9116
6.9758;1.4564;-2.9345
6.9923;1.3871;-2.9372
6.9192;1.4531;-2.9365
6.8589;1.4566;-2.9347
6.7992;1.4493;-2.9346
6.7345;1.4564;-2.9359
6.6451;1.1853;-2.8900
6.4642;1.4391;-2.9215
6.2777;1.6556;-2.9483
6.3382;1.5386;-2.9357
6.3918;1.4347;-2.9232
6.1857;1.6665;-2.9478
6.2489;1.5557;-2.9431
6.1652;1.5520;-2.9446
6.0722;1.5599;-2.9436
5.8894;1.5519;-2.9350
5.7971;1.5418;-2.9313
5.6937;1.5433;-2.9241
5.3768;1.5249;-2.9115
5.4912;1.5418;-2.9142
7.0130;1.3638;-2.9275
6.9607;1.3656;-2.9266
6.8892;1.4282;-2.9277
6.9088;1.3615;-2.9307
6.8309;1.4308;-2.9263
6.8529;1.3644;-2.9308
6.7735;1.4231;-2.9263
6.7112;1.4271;-2.9262
6.6809;1.1882;-2.8923
6.5234;1.3976;-2.9079
6.5590;1.3239;-2.9075
6.4529;1.4008;-2.9068
6.4918;1.3265;-2.9075
6.3306;1.4941;-2.9232
6.3823;1.3985;-2.9116
6.1825;1.6137;-2.9378
6.3015;1.4119;-2.9204
6.1007;1.6033;-2.9350
6.1649;1.5032;-2.9315
6.0767;1.5075;-2.9293
5.9956;1.4947;-2.9254
5.9019;1.4971;-2.9213
5.8159;1.4834;-2.9151
5.7140;1.4870;-2.9118
5.6190;1.4764;-2.9105
6.8760;1.4309;-2.9295
6.8219;1.4248;-2.9312
6.7641;1.4256;-2.9298
6.7070;1.4188;-2.9324
6.4312;1.5958;-2.9471
6.4771;1.4981;-2.9377
6.3027;1.6973;-2.9581
6.3597;1.5849;-2.9454
6.2145;1.7073;-2.9592
6.1319;1.6982;-2.9584
6.1966;1.5904;-2.9515
6.0405;1.6995;-2.9520
6.1087;1.5946;-2.9498
6.0283;1.5796;-2.9450
5.8516;1.5626;-2.9315
5.6662;1.5412;-2.9159
6.8555;1.3540;-2.9253
6.8043;1.3502;-2.9218
6.7302;1.3977;-2.9143
6.7019;1.3159;-2.8978
6.6781;1.2304;-2.8818
6.4274;1.6846;-2.9609
6.4721;1.5872;-2.9556
6.3567;1.6719;-2.9581
6.4065;1.5693;-2.9473
6.2742;1.6816;-2.9611
6.3295;1.5765;-2.9504
6.1964;1.6723;-2.9599
6.1099;1.6741;-2.9560
5.9432;1.6482;-2.9373
5.6509;1.5155;-2.9201
6.4562;1.6399;-2.9526
6.3914;1.6248;-2.9486
6.3679;1.5314;-2.9406
6.2447;1.6210;-2.9546
6.3016;1.5181;-2.9393
5.9244;1.5852;-2.9425
5.5755;1.5155;-2.9033
6.4723;1.5175;-2.9366
6.5114;1.4333;-2.9259
6.3630;1.6039;-2.9446
6.4091;1.5130;-2.9346
6.4502;1.4342;-2.9305
6.2975;1.5912;-2.9451
6.3476;1.5005;-2.9374
6.1656;1.6867;-2.9503
6.1533;1.5761;-2.9467
6.0011;1.5511;-2.9391
5.9164;1.5444;-2.9350
6.4361;1.4971;-2.9331
6.3338;1.5663;-2.9420
6.2095;1.6598;-2.9522
6.3154;1.4791;-2.9364
6.1415;1.6432;-2.9528
6.2007;1.5489;-2.9448
6.0628;1.6397;-2.9522
5.9927;1.6148;-2.9451
5.9124;1.6018;-2.9368
6.2532;1.7426;-2.9633
6.3066;1.6446;-2.9542
6.4017;1.4632;-2.9256
6.4400;1.3944;-2.9218
6.1835;1.7356;-2.9600
6.2401;1.6398;-2.9542
6.2930;1.5472;-2.9425
6.3434;1.4569;-2.9269
6.1200;1.7107;-2.9549
6.1078;1.6097;-2.9482
5.9676;1.5735;-2.9399
5.8160;1.5351;-2.9300
6.1381;1.5875;-2.9392
6.1949;1.5009;-2.9298
6.1372;1.4810;-2.9317
5.9437;1.5271;-2.9315
5.8692;1.5114;-2.9262
6.0952;1.5682;-2.9367
6.0303;1.5550;-2.9343
5.9038;1.6111;-2.9314
5.8262;1.6008;-2.9313
5.9221;1.5291;-2.9265
5.8604;1.5040;-2.9271
5.8776;1.5252;-2.9206
5.8075;1.5125;-2.9240
5.8680;1.3658;-2.9000
5.8645;1.4406;-2.9073
5.9156;1.4661;-2.9112
5.9223;1.4504;-2.9080
5.8757;1.4152;-2.9012
5.5142;1.6005;-2.9301
6.0356;1.6294;-2.9417
6.1144;1.5726;-2.9428
6.1904;1.5163;-2.9380
5.7952;1.6408;-2.9507
5.6370;1.6534;-2.9296
5.8880;1.7047;-2.9540
5.3569;1.5905;-2.9296
5.9322;1.6446;-2.9419
5.8613;1.6092;-2.9415
5.7756;1.5807;-2.9378
5.4889;1.5728;-2.9240
6.6971;1.2996;-2.9090
6.7072;1.2295;-2.8897
5.6926;1.5894;-2.9334
6.7969;1.3701;-2.9196
6.7518;1.3535;-2.9228
6.7128;1.3265;-2.9203
6.6778;1.1733;-2.8831
6.8561;1.4084;-2.9251
6.8089;1.3966;-2.9331
6.6890;1.4468;-2.9218
6.7276;1.4115;-2.9313
6.7232;1.3500;-2.9243
6.6915;1.1881;-2.8778
5.8748;1.6542;-2.9403
5.9663;1.5897;-2.9456
5.7804;1.6303;-2.9346
5.2297;1.5797;-2.9162
6.9096;1.5246;-2.9479
6.8316;1.5451;-2.9436
6.8678;1.5040;-2.9482
6.9029;1.4626;-2.9473
6.8232;1.4830;-2.9374
6.8946;1.4034;-2.9385
6.7804;1.4585;-2.9320
6.4685;1.6277;-2.9481
6.5296;1.5678;-2.9402
6.5848;1.5142;-2.9367
6.7278;1.3750;-2.9246
6.6837;1.3486;-2.9069
5.7556;1.5995;-2.9316
5.6769;1.5595;-2.9194
5.3167;1.5809;-2.9180
6.9094;1.4810;-2.9359
6.9419;1.4427;-2.9396
6.9728;1.4054;-2.9399
6.9005;1.4223;-2.9378
6.7793;1.4876;-2.9313
6.8172;1.4470;-2.9357
6.8532;1.4081;-2.9376
6.6352;1.5684;-2.9426
6.6862;1.5139;-2.9335
6.7313;1.4669;-2.9321
6.3020;1.8275;-2.9810
6.3756;1.7540;-2.9745
6.4459;1.6835;-2.9660
6.5109;1.6180;-2.9555
6.5707;1.5579;-2.9470
6.6258;1.5023;-2.9373
6.3069;1.7309;-2.9740
6.3818;1.6598;-2.9633
6.5151;1.5330;-2.9424
6.5716;1.4797;-2.9375
6.6259;1.4280;-2.9275
6.6730;1.3837;-2.9260
6.5751;1.4032;-2.9114
6.6237;1.3601;-2.9117
6.6661;1.3227;-2.9165
5.8284;1.5821;-2.9320
5.7327;1.5577;-2.9218
5.6366;1.5268;-2.9209
5.2693;1.5469;-2.9171
7.1451;1.4799;-2.9414
7.1687;1.4444;-2.9415
7.1914;1.4122;-2.9459
7.2130;1.3778;-2.9418
7.1048;1.4697;-2.9429
7.1296;1.4350;-2.9452
7.0389;1.4891;-2.9405
7.0666;1.4516;-2.9414
6.9948;1.4765;-2.9389
7.0521;1.4035;-2.9430
6.9527;1.4582;-2.9385
6.9834;1.4215;-2.9428
6.9048;1.4463;-2.9397
6.7840;1.5112;-2.9388
6.8227;1.4684;-2.9401
6.6299;1.6035;-2.9491
6.6809;1.5489;-2.9428
6.7278;1.4989;-2.9395
6.7698;1.4546;-2.9391
6.2951;1.8639;-2.9875
6.3711;1.7873;-2.9815
6.4423;1.7150;-2.9717
6.5091;1.6471;-2.9618
6.5703;1.5847;-2.9509
6.6247;1.5298;-2.9460
6.6749;1.4790;-2.9401
6.2117;1.8505;-2.9819
6.2889;1.7771;-2.9813
6.3640;1.7053;-2.9736
6.4362;1.6360;-2.9632
6.5040;1.5706;-2.9489
6.5663;1.5107;-2.9368
6.6178;1.4615;-2.9340
6.6662;1.4154;-2.9324
6.5158;1.4806;-2.9224
6.5687;1.4330;-2.9230
6.6182;1.3884;-2.9219
6.7040;1.1858;-2.8908
5.4769;1.5569;-2.9258
7.2724;1.3798;-2.9424
7.2909;1.3488;-2.9399
7.1715;1.4688;-2.9411
7.1945;1.4349;-2.9441
7.2160;1.4026;-2.9459
7.1349;1.4503;-2.9381
7.1585;1.4171;-2.9412
7.0936;1.4393;-2.9383
7.1189;1.4045;-2.9387
7.0259;1.4590;-2.9376
7.0541;1.4220;-2.9376
7.0812;1.3867;-2.9384
6.9795;1.4489;-2.9404
7.0094;1.4116;-2.9407
6.9031;1.4690;-2.9376
6.9357;1.4311;-2.9406
6.7656;1.4780;-2.9331
6.8043;1.4371;-2.9358
6.4888;1.6894;-2.9599
6.6088;1.5667;-2.9427
6.6607;1.5137;-2.9364
6.7075;1.4663;-2.9350
6.7494;1.4239;-2.9359
6.2651;1.8206;-2.9840
6.3415;1.7471;-2.9794
6.4194;1.6717;-2.9624
6.4872;1.6063;-2.9527
6.5480;1.5477;-2.9441
6.6036;1.4942;-2.9385
6.6534;1.4462;-2.9348
6.5976;1.4266;-2.9240
6.6455;1.3831;-2.9244
6.6910;1.2758;-2.9061
7.2863;1.4397;-2.9397
7.3053;1.4079;-2.9408
7.3231;1.3786;-2.9424
7.2289;1.4648;-2.9431
7.2496;1.4326;-2.9456
7.2698;1.4014;-2.9488
7.1926;1.4480;-2.9402
7.2147;1.4155;-2.9436
7.1527;1.4369;-2.9390
7.1762;1.4037;-2.9413
7.0889;1.4545;-2.9353
7.1148;1.4196;-2.9379
7.1392;1.3866;-2.9393
7.0448;1.4438;-2.9357
7.0724;1.4082;-2.9375
7.0026;1.4272;-2.9376
7.0312;1.3922;-2.9396
6.8884;1.4941;-2.9359
6.8397;1.4763;-2.9358
6.8757;1.4366;-2.9390
6.7424;1.5095;-2.9383
6.3867;1.7947;-2.9780
6.4572;1.7236;-2.9687
6.5230;1.6571;-2.9598
6.5830;1.5965;-2.9506
6.6373;1.5417;-2.9453
6.6874;1.4911;-2.9390
6.7329;1.4454;-2.9370
6.2210;1.8639;-2.9839
6.3685;1.7234;-2.9817
6.4413;1.6540;-2.9709
6.5074;1.5910;-2.9598
6.6228;1.4809;-2.9432
6.6734;1.4327;-2.9377
5.4874;1.5810;-2.9114
5.5960;1.5163;-2.9224
7.2762;1.4619;-2.9418
7.2957;1.4287;-2.9410
7.3140;1.3981;-2.9412
7.3317;1.3661;-2.9360
7.2412;1.4453;-2.9393
7.2614;1.4138;-2.9407
7.2240;1.4028;-2.9392
7.2447;1.3720;-2.9407
6.3397;1.7408;-2.9695
6.2505;1.7340;-2.9729
6.3264;1.6669;-2.9668
6.4012;1.6012;-2.9561
6.4700;1.5408;-2.9438
6.5318;1.4863;-2.9356
6.5861;1.4383;-2.9307
6.6357;1.3944;-2.9292
6.0949;1.7776;-2.9652
6.1738;1.7110;-2.9681
6.4736;1.4624;-2.9285
6.5342;1.4122;-2.9200
6.5853;1.3694;-2.9185
5.1146;1.5880;-2.9147
7.3226;1.4610;-2.9424
7.3403;1.4293;-2.9406
7.1360;1.3953;-2.9431
7.0104;1.4885;-2.9395
7.0395;1.4520;-2.9406
7.0676;1.4167;-2.9414
6.9650;1.4723;-2.9401
6.9959;1.4358;-2.9427
6.9145;1.4612;-2.9400
6.9472;1.4243;-2.9429
6.6840;1.5626;-2.9429
6.7316;1.5140;-2.9390
6.7741;1.4706;-2.9374
6.8133;1.4307;-2.9394
6.5082;1.6570;-2.9603
6.5689;1.5986;-2.9517
6.6245;1.5450;-2.9455
6.6750;1.4962;-2.9399
6.7204;1.4524;-2.9394
6.3579;1.7146;-2.9727
6.4290;1.6498;-2.9652
6.4953;1.5896;-2.9551
6.5552;1.5350;-2.9487
6.6095;1.4855;-2.9430
6.6598;1.4396;-2.9392
6.2024;1.7638;-2.9785
6.1177;1.7475;-2.9684
6.4266;1.4970;-2.9378
6.4965;1.4414;-2.9211
6.5475;1.3993;-2.9232
7.2789;1.3889;-2.9358
7.2975;1.3607;-2.9360
7.1834;1.3956;-2.9423
7.0510;1.4320;-2.9371
6.9293;1.4379;-2.9338
6.9607;1.4035;-2.9378
6.8443;1.4613;-2.9282
6.9113;1.3914;-2.9376
6.8306;1.4069;-2.9320
6.4670;1.6836;-2.9584
6.5294;1.6252;-2.9513
6.5875;1.5708;-2.9454
6.6406;1.5211;-2.9392
6.6904;1.4745;-2.9342
6.7759;1.3942;-2.9319
6.2452;1.7988;-2.9727
6.3203;1.7321;-2.9708
6.3923;1.6684;-2.9638
6.4607;1.6081;-2.9558
6.5221;1.5539;-2.9489
6.5778;1.5045;-2.9457
6.6321;1.4568;-2.9367
6.6804;1.4140;-2.9335
6.1531;1.7898;-2.9718
6.2301;1.7246;-2.9741
6.4474;1.5434;-2.9520
6.5119;1.4900;-2.9417
6.6204;1.3996;-2.9308
6.1493;1.7040;-2.9726
6.5159;1.4176;-2.9242
6.5695;1.3754;-2.9199
6.6198;1.3356;-2.9166
6.6760;1.2935;-2.8960
6.3924;1.4455;-2.9182
7.3364;1.4387;-2.9435
7.1848;1.4601;-2.9399
7.2075;1.4288;-2.9421
7.0758;1.4675;-2.9387
7.1022;1.4347;-2.9420
6.9542;1.4754;-2.9368
6.8545;1.4467;-2.9374
6.4936;1.7299;-2.9679
6.5564;1.6695;-2.9586
6.6659;1.5639;-2.9462
6.7150;1.5165;-2.9408
6.2743;1.8476;-2.9820
6.4217;1.7132;-2.9695
6.4889;1.6522;-2.9614
6.5506;1.5962;-2.9523
6.6067;1.5452;-2.9467
6.6588;1.4978;-2.9396
6.7051;1.4555;-2.9384
6.1824;1.8396;-2.9812
6.3336;1.7085;-2.9775
6.4089;1.6441;-2.9657
6.5394;1.5327;-2.9452
6.5946;1.4853;-2.9389
6.5383;1.4629;-2.9336
6.5891;1.4212;-2.9325
6.4707;1.4487;-2.9313
6.4138;1.4242;-2.9211
7.2998;1.4191;-2.9407
7.2839;1.3777;-2.9434
7.1670;1.4094;-2.9436
7.0316;1.4447;-2.9378
6.9845;1.4331;-2.9361
7.0134;1.4011;-2.9394
6.8183;1.4749;-2.9326
6.8050;1.4208;-2.9342
6.4989;1.6306;-2.9500
6.5590;1.5775;-2.9430
6.6120;1.5305;-2.9389
6.6621;1.4859;-2.9351
6.7068;1.4460;-2.9338
6.7491;1.4082;-2.9334
6.2860;1.7329;-2.9684
6.4303;1.6126;-2.9521
6.4952;1.5588;-2.9421
6.6048;1.4670;-2.9336
6.6528;1.4264;-2.9324
6.1187;1.7867;-2.9665
6.1953;1.7244;-2.9701
6.2732;1.6627;-2.9645
6.3487;1.6034;-2.9560
6.4189;1.5487;-2.9454
6.5425;1.4521;-2.9280
6.5950;1.4104;-2.9243
6.6414;1.3732;-2.9235
6.0388;1.7627;-2.9600
6.1144;1.7037;-2.9674
6.4192;1.4779;-2.9350
6.4852;1.4299;-2.9228
6.5446;1.3868;-2.9119
6.5929;1.3499;-2.9128
6.6375;1.3158;-2.9135
6.0232;1.6898;-2.9616
7.0785;1.4554;-2.9397
6.8603;1.4312;-2.9343
6.3011;1.7889;-2.9764
6.3747;1.7260;-2.9690
6.4446;1.6665;-2.9608
6.6210;1.5165;-2.9390
6.7151;1.4358;-2.9324
6.7565;1.3999;-2.9325
6.2111;1.7804;-2.9768
6.3631;1.6576;-2.9638
6.5542;1.5045;-2.9393
6.1313;1.7593;-2.9726
6.2884;1.6387;-2.9642
6.4300;1.5318;-2.9466
6.5504;1.4411;-2.9308
6.6015;1.4019;-2.9282
6.6487;1.3657;-2.9251
6.0481;1.7415;-2.9592
6.5417;1.3859;-2.9215
6.6930;1.2799;-2.8959
6.0543;1.5817;-2.9415
6.2252;1.4741;-2.9223
6.6792;1.1863;-2.8787
7.2583;1.4256;-2.9413
7.2781;1.3992;-2.9426
6.9718;1.4474;-2.9303
7.0014;1.4168;-2.9342
6.8399;1.4507;-2.9274
6.7041;1.5073;-2.9332
6.7478;1.4691;-2.9305
6.5359;1.5821;-2.9414
6.5907;1.5371;-2.9365
6.6412;1.4953;-2.9340
6.6870;1.4572;-2.9328
6.7304;1.4211;-2.9324
6.2590;1.7265;-2.9660
6.3347;1.6681;-2.9580
6.4059;1.6132;-2.9498
6.5302;1.5173;-2.9361
6.5833;1.4760;-2.9326
6.6320;1.4376;-2.9321
6.6775;1.4019;-2.9305
6.2486;1.6577;-2.9604
6.4597;1.5044;-2.9365
6.5193;1.4613;-2.9288
6.5726;1.4219;-2.9257
6.0896;1.6941;-2.9629
6.3257;1.5308;-2.9443
6.3948;1.4838;-2.9350
6.5171;1.4005;-2.9200
6.5679;1.3646;-2.9192
6.6678;1.2972;-2.9043
6.0056;1.6761;-2.9514
6.3236;1.4679;-2.9299
6.4545;1.3840;-2.9134
6.5180;1.3449;-2.8995
6.3422;1.3975;-2.9029
5.9406;1.5717;-2.9236
6.0244;1.5207;-2.9258
7.3117;1.4313;-2.9477
7.2525;1.4473;-2.9458
7.2731;1.4212;-2.9497
7.1731;1.4204;-2.9430
7.0491;1.3749;-2.9381
6.3773;1.7820;-2.9747
6.5135;1.6682;-2.9566
6.5738;1.6178;-2.9490
6.6788;1.5298;-2.9382
6.3003;1.7638;-2.9773
6.5082;1.6000;-2.9509
6.1360;1.8123;-2.9754
6.2106;1.7542;-2.9795
6.2868;1.6967;-2.9744
6.3616;1.6409;-2.9659
6.4974;1.5408;-2.9444
6.0594;1.7873;-2.9677
6.0475;1.7158;-2.9663
5.9743;1.6882;-2.9553
5.8915;1.6679;-2.9401
6.3662;1.3823;-2.9119
5.8910;1.5906;-2.9427
7.2688;1.4368;-2.9371
7.2893;1.4107;-2.9367
7.2049;1.4549;-2.9401
7.2283;1.4266;-2.9385
7.2501;1.3999;-2.9362
7.1397;1.4686;-2.9402
7.1212;1.4283;-2.9404
7.1707;1.3743;-2.9411
7.1059;1.3848;-2.9409
6.3444;1.8104;-2.9788
6.4822;1.6968;-2.9637
6.6011;1.5991;-2.9491
6.2579;1.8007;-2.9788
6.4033;1.6869;-2.9660
6.4690;1.6359;-2.9581
6.1798;1.7804;-2.9759
6.4669;1.5685;-2.9491
6.0976;1.7644;-2.9654
6.3230;1.6037;-2.9583
6.3935;1.5553;-2.9481
6.6245;1.3959;-2.9195
6.0966;1.6867;-2.9638
6.4588;1.4485;-2.9293
6.6215;1.3428;-2.9093
6.6635;1.3133;-2.9125
6.5107;1.3599;-2.9109
6.0207;1.5928;-2.9467
6.4586;1.3382;-2.9014
6.6964;1.1974;-2.8851
5.9399;1.5740;-2.9347
6.2730;1.3916;-2.9008
5.8622;1.5484;-2.9283
7.1942;1.4154;-2.9358
7.1022;1.4570;-2.9394
7.1785;1.3743;-2.9338
7.0556;1.4460;-2.9386
7.0829;1.4177;-2.9409
7.0394;1.4023;-2.9412
6.9305;1.4482;-2.9358
6.9612;1.4190;-2.9410
6.3587;1.7300;-2.9630
6.5499;1.5823;-2.9422
6.6037;1.5406;-2.9364
6.7414;1.4323;-2.9304
6.1985;1.7764;-2.9689
6.2725;1.7211;-2.9659
6.4778;1.5712;-2.9438
6.5375;1.5282;-2.9348
6.6406;1.4524;-2.9257
6.6853;1.4187;-2.9255
6.7261;1.3876;-2.9263
6.1960;1.7014;-2.9656
6.2706;1.6492;-2.9605
6.5875;1.4325;-2.9204
6.6348;1.3992;-2.9179
6.6785;1.3678;-2.9181
6.7202;1.3383;-2.9163
6.1084;1.6892;-2.9632
6.4646;1.4568;-2.9274
6.5242;1.4188;-2.9182
6.5770;1.3847;-2.9117
6.0335;1.6663;-2.9554
6.4006;1.4372;-2.9287
6.4635;1.3999;-2.9181
6.5245;1.3644;-2.9057
6.5743;1.3333;-2.9020
6.7027;1.2506;-2.9010
6.3941;1.3858;-2.9183
5.8811;1.6224;-2.9302
5.9548;1.5758;-2.9404
7.2318;1.4333;-2.9458
6.9771;1.4666;-2.9401
7.0073;1.4372;-2.9399
6.8606;1.5149;-2.9393
6.8041;1.5041;-2.9386
6.9110;1.4101;-2.9393
6.5557;1.6463;-2.9560
6.6107;1.6021;-2.9488
6.7510;1.4874;-2.9386
6.7905;1.4546;-2.9377
6.2719;1.7967;-2.9836
6.4160;1.6866;-2.9670
6.4807;1.6373;-2.9591
6.5400;1.5923;-2.9512
6.5945;1.5504;-2.9460
6.3418;1.6700;-2.9708
6.4105;1.6209;-2.9613
6.4745;1.5749;-2.9530
6.5852;1.4946;-2.9422
6.1109;1.7645;-2.9735
6.4604;1.5222;-2.9481
6.5191;1.4823;-2.9410
6.0366;1.7420;-2.9634
6.5727;1.3923;-2.9191
6.6160;1.3618;-2.9227
5.9506;1.7272;-2.9529
6.0244;1.6765;-2.9625
6.5090;1.3791;-2.9184
6.5659;1.3464;-2.9066
6.6068;1.3184;-2.9115
5.9484;1.6539;-2.9536
6.5098;1.3282;-2.9051
7.1150;1.4275;-2.9299
7.1406;1.4008;-2.9263
7.0690;1.4176;-2.9309
7.0965;1.3908;-2.9266
6.9649;1.4597;-2.9363
7.0804;1.3516;-2.9262
7.0342;1.3412;-2.9299
6.8311;1.4634;-2.9317
6.7631;1.4051;-2.9268
6.1842;1.7654;-2.9657
6.2573;1.7121;-2.9640
6.6682;1.4230;-2.9201
6.7081;1.3928;-2.9227
6.1049;1.7466;-2.9633
6.1794;1.6947;-2.9629
6.3275;1.5961;-2.9480
6.6173;1.4048;-2.9136
6.6587;1.3753;-2.9154
6.2436;1.5859;-2.9510
6.3169;1.5405;-2.9416
6.3849;1.4991;-2.9311
6.4479;1.4603;-2.9223
6.5051;1.4250;-2.9145
6.6065;1.3615;-2.9038
6.6860;1.3068;-2.9091
6.0127;1.6633;-2.9564
6.3835;1.4425;-2.9219
6.4445;1.4069;-2.9144
6.5019;1.3741;-2.9053
6.5524;1.3436;-2.9018
7.1239;1.4601;-2.9360
7.0051;1.4639;-2.9352
6.8756;1.4674;-2.9305
6.8200;1.4571;-2.9317
6.7689;1.4409;-2.9307
6.2591;1.7571;-2.9696
6.3303;1.7055;-2.9635
6.3993;1.6561;-2.9556
6.6256;1.4938;-2.9303
6.6709;1.4606;-2.9275
6.1065;1.7931;-2.9675
6.1780;1.7411;-2.9704
6.2533;1.6889;-2.9659
6.3245;1.6405;-2.9585
6.3929;1.5945;-2.9502
6.4568;1.5522;-2.9403
6.5154;1.5127;-2.9330
6.5682;1.4770;-2.9274
6.6179;1.4430;-2.9227
6.6623;1.4121;-2.9205
6.7029;1.3827;-2.9215
6.3107;1.5850;-2.9547
6.5042;1.4647;-2.9236
6.5573;1.4306;-2.9184
6.6053;1.3994;-2.9144
6.6493;1.3698;-2.9136
6.6887;1.3426;-2.9150
6.7280;1.3162;-2.9146
6.0104;1.7105;-2.9624
6.4429;1.4468;-2.9230
6.5009;1.4130;-2.9138
6.5548;1.3811;-2.9063
6.5999;1.3524;-2.9054
6.6422;1.3249;-2.9061
6.7201;1.2746;-2.9066
7.0116;1.4331;-2.9309
7.0392;1.4073;-2.9323
6.9672;1.4178;-2.9293
6.9171;1.4069;-2.9291
6.8376;1.4179;-2.9253
6.8691;1.3918;-2.9295
6.8177;1.3799;-2.9264
6.3112;1.6808;-2.9538
6.3800;1.6340;-2.9467
6.6521;1.4481;-2.9211
6.6948;1.4179;-2.9202
6.7342;1.3900;-2.9197
6.1486;1.7211;-2.9617
6.2243;1.6716;-2.9566
6.2981;1.6242;-2.9492
6.4298;1.5401;-2.9341
6.6797;1.3774;-2.9148
6.0733;1.7012;-2.9544
6.1473;1.6531;-2.9560
6.2228;1.6069;-2.9496
6.2963;1.5627;-2.9411
6.3633;1.5226;-2.9330
6.4277;1.4845;-2.9239
6.6701;1.3337;-2.9101
6.7068;1.3086;-2.9143
6.9976;1.3961;-2.9392
6.9503;1.3840;-2.9370
6.7936;1.4042;-2.9193
6.7459;1.3866;-2.9149
6.7794;1.3619;-2.9201
6.0895;1.7469;-2.9613
6.1644;1.6983;-2.9612
6.2387;1.6512;-2.9577
6.3801;1.5653;-2.9407
6.7306;1.3482;-2.9099
6.7636;1.3242;-2.9170
6.0066;1.7271;-2.9576
6.0822;1.6789;-2.9621
6.1596;1.6326;-2.9584
6.3762;1.5085;-2.9336
6.6860;1.3301;-2.9003
6.7195;1.3069;-2.9073
6.9176;1.3971;-2.9314
6.8425;1.4021;-2.9224
6.8725;1.3792;-2.9289
6.7909;1.3874;-2.9200
6.8236;1.3644;-2.9244
6.1825;1.7061;-2.9582
6.2606;1.6595;-2.9510
6.3330;1.6169;-2.9426
6.7433;1.3686;-2.9157
6.7781;1.3453;-2.9203
6.1723;1.6454;-2.9530
6.3226;1.5621;-2.9363
6.3897;1.5254;-2.9278
6.7285;1.3298;-2.9129
6.2491;1.5410;-2.9375
6.3209;1.5039;-2.9293
6.3874;1.4701;-2.9202
6.4490;1.4383;-2.9128
6.9701;1.4286;-2.9258
6.9271;1.4085;-2.9259
6.8016;1.3921;-2.9175
6.8352;1.3707;-2.9210
6.8664;1.3499;-2.9275
6.1847;1.6877;-2.9507
6.7109;1.3971;-2.9134
6.7850;1.3529;-2.9191
6.8196;1.3321;-2.9221
6.1858;1.6196;-2.9458
6.2628;1.5804;-2.9383
6.4006;1.5104;-2.9251
